ply
format ascii 1.0
comment Created by CloudCompare v2.11.1 (Anoia)
comment Created 2024/9/20 下午2:55
obj_info Generated by CloudCompare!
element vertex 1312
property float x
property float y
property float z
property uchar red
property uchar green
property uchar blue
end_header
231.908 85.9642 5.36054 146 145 159 
231.263 86.2294 5.89298 152 173 200 
231.263 86.2287 5.58722 145 159 185 
231.225 86.2457 6.2382 148 166 188 
230.968 86.4077 6.26762 140 162 183 
231.41 86.2507 7.25273 183 184 179 
231.661 86.1197 7.39716 194 189 186 
231.643 86.1283 7.71192 188 184 183 
231.247 86.2515 6.54891 135 151 177 
230.05 86.9962 7.65197 175 171 170 
230.063 86.9869 7.24667 181 177 174 
229.834 87.1049 7.07688 185 181 178 
230.07 86.9883 8.03969 185 184 182 
231.706 85.9857 6.18703 140 162 185 
231.544 86.1207 5.84658 140 159 176 
231.286 86.3171 7.57823 184 183 181 
231.175 86.3743 7.1137 184 177 171 
232.175 83.7683 9.69888 98 106 108 
232.141 83.6846 9.3061 114 112 113 
232.013 85.9364 6.53326 189 187 192 
232.081 85.956 5.10496 104 93 97 
231.702 85.9989 2.58254 100 117 133 
232.952 85.448 4.45976 129 126 121 
231.579 86.0915 2.8693 130 151 168 
232.742 85.5354 3.17468 164 163 158 
232.231 85.8193 2.75242 179 180 174 
232.78 85.5098 2.68553 176 168 166 
232.453 85.6924 2.5404 165 162 157 
232.449 85.6984 2.954 172 171 169 
232.393 85.7671 5.13993 90 79 83 
231.82 85.9372 5.7027 82 97 116 
232.879 85.4974 4.81096 75 64 60 
232.187 85.8287 2.05093 144 143 141 
232.724 85.5495 6.25232 181 179 180 
233.002 85.1853 4.91734 103 81 67 
231.963 85.9134 2.87448 170 171 173 
231.991 85.9297 6.10601 191 190 195 
232.008 85.9124 2.56949 193 196 201 
232.787 85.5153 5.88326 180 179 174 
232.817 84.8509 2.68343 198 195 190 
232.715 84.669 2.4206 182 179 172 
232.903 85.0136 2.44098 192 189 184 
231.849 85.9805 3.57621 70 73 90 
231.961 85.9596 4.04224 180 179 175 
232.237 85.8128 4.02031 171 170 166 
232.508 85.6443 3.33825 161 154 146 
232.812 85.4942 3.46839 167 162 158 
232.841 84.8607 5.20904 68 61 55 
232.954 85.0824 6.58867 206 201 195 
232.931 85.0442 8.72546 194 191 186 
232.857 84.9115 8.37245 197 194 189 
232.859 84.9073 5.72855 188 187 183 
232.741 84.708 6.02531 199 196 191 
232.937 85.0391 7.22517 201 198 193 
232.765 84.7446 8.74017 199 196 191 
232.955 85.0867 6.92205 201 196 190 
232.812 84.8335 4.10545 194 194 192 
232.775 84.7816 3.33467 206 203 198 
232.929 85.0604 2.87216 197 194 189 
232.766 84.7368 2.95831 194 191 186 
232.924 85.0487 3.2694 199 199 191 
233.035 85.242 5.39521 194 189 186 
232.903 85.4389 4.15236 189 186 181 
232.447 85.7015 2.20731 147 144 139 
232.848 84.8994 2.16608 185 182 175 
230.255 86.7725 2.50018 14 22 41 
230.357 86.7509 2.84685 55 74 104 
229.759 87.1197 2.63617 192 197 193 
231.595 86.0795 2.30265 59 67 80 
232.856 85.4669 2.3741 174 169 165 
232.31 83.9942 2.39097 44 51 70 
232.191 83.5775 5.09301 123 110 91 
232.609 84.4413 3.04652 201 197 194 
232.508 84.2551 2.77453 200 196 193 
232.448 84.1425 3.12003 202 198 195 
232.038 83.5494 2.47292 27 50 82 
232.192 83.8196 2.65438 155 173 193 
232.377 84.0541 3.51773 196 193 184 
232.562 84.3513 2.31423 191 188 181 
232.671 84.5676 2.71209 193 190 185 
231.964 83.4381 3.01238 151 167 183 
232.006 83.485 3.35938 92 108 141 
231.814 83.1813 2.52501 154 172 182 
231.687 82.8803 2.62194 131 148 168 
232.213 83.9011 3.04424 155 171 194 
232.205 83.703 2.08058 149 154 157 
229.724 87.1631 3.01598 189 188 186 
229.992 86.9837 2.9689 71 83 97 
232.726 84.5588 4.99458 112 84 62 
231.829 83.1535 3.03071 125 144 161 
231.879 83.2878 5.76418 140 153 162 
231.902 83.3212 6.09947 139 152 168 
232.002 83.4702 8.64819 14 15 19 
231.855 83.1995 9.53398 122 132 142 
232.276 83.9316 6.73557 115 116 121 
232.201 83.8821 9.03618 96 92 93 
232.564 84.3717 7.13648 203 198 192 
232.498 84.2307 6.72428 207 203 200 
232.115 83.6677 12.2633 157 164 180 
230.054 86.9624 12.3833 133 151 175 
232.092 83.5808 15.1388 63 70 78 
232.037 83.3306 14.6898 209 206 197 
232.219 83.79 11.8276 46 53 71 
231.923 83.1795 10.9219 197 194 189 
231.941 83.4308 11.9631 157 170 178 
232.056 83.572 8.98832 76 74 75 
231.888 83.1238 10.5741 214 206 204 
232.107 83.4945 11.6846 115 115 113 
232.402 83.9872 11.6477 180 167 158 
232.427 84.1193 10.987 205 201 198 
232.228 83.7586 11.1454 204 203 201 
232.418 84.0961 10.5907 201 197 194 
232.564 84.3671 10.8304 203 199 196 
231.934 83.4148 9.27238 138 148 158 
231.962 83.4578 12.7867 131 144 161 
231.953 83.4478 12.4398 102 114 128 
232.233 83.9468 12.1652 158 164 178 
232.255 83.9718 9.4127 81 81 83 
232.148 83.597 11.3888 203 198 194 
232.406 84.0574 11.2882 196 191 187 
232.175 83.6393 14.2799 199 194 190 
231.997 83.317 14.1701 201 196 192 
232.288 83.8479 14.481 201 196 192 
232.627 84.4908 13.8833 189 184 178 
232.813 84.8244 13.8402 199 194 188 
232.294 83.9356 13.213 105 104 112 
232.474 84.201 14.1116 195 191 182 
232.491 84.2326 12.6793 202 197 191 
232.757 84.725 13.5021 203 198 192 
232.568 84.3872 13.5021 199 194 190 
232.434 84.1149 15.3646 206 203 198 
232.402 84.0838 15.7385 211 209 210 
232.274 83.948 15.0767 81 82 84 
232.18 83.6563 13.5802 191 193 188 
232.343 83.9694 13.6779 194 189 183 
232.498 84.2345 12.2119 197 194 189 
232.532 84.3201 11.5292 207 198 191 
232.686 84.5805 11.4962 204 203 198 
232.753 85.5363 11.1537 186 182 179 
232.699 84.6069 10.633 194 191 184 
232.565 84.363 10.5068 200 197 192 
232.707 84.636 10.2777 193 188 182 
232.46 84.1811 10.2739 194 191 186 
232.612 84.4673 9.8412 185 182 175 
232.818 84.8487 10.0773 192 187 181 
232.453 84.1313 8.60774 202 196 198 
232.348 83.9046 8.43263 87 77 68 
232.874 84.9145 7.49587 197 193 184 
232.903 84.9897 6.2732 203 193 191 
232.737 84.708 6.35345 194 191 186 
232.944 85.0514 5.98126 190 187 182 
232.596 84.3897 8.90513 196 197 192 
232.64 84.5048 3.37469 208 205 200 
232.229 83.8158 5.40608 20 19 27 
232.488 84.2155 8.26371 203 200 195 
232.592 84.416 8.55298 202 197 193 
232.374 84.0067 7.77612 200 197 192 
232.369 83.9918 8.08178 199 194 190 
232.011 83.38 6.79751 63 64 68 
232.196 83.6233 8.46364 82 72 63 
232.364 83.8704 5.10887 119 102 82 
232.46 84.1614 4.32276 199 195 192 
232.388 83.9025 4.73522 122 108 99 
232.596 84.4446 3.88765 206 202 199 
232.711 84.6351 3.68556 162 159 154 
232.335 83.964 4.05495 203 199 200 
232.498 84.1592 5.10846 117 95 82 
232.614 84.4537 5.29049 202 194 192 
232.336 84.0328 5.63849 121 120 118 
232.474 84.1824 6.24571 199 195 192 
232.348 84.0426 6.01072 153 162 169 
232.591 84.275 4.79399 102 77 57 
232.642 84.4357 4.49127 157 149 136 
232.77 84.6496 4.66938 104 82 61 
231.972 83.2376 4.09455 192 189 182 
232.229 83.7695 3.76613 193 194 199 
231.781 82.9188 11.1578 198 193 190 
228.796 83.2962 17.3435 156 165 180 
228.577 83.0182 17.344 161 167 179 
228.853 82.9 17.3437 151 161 173 
228.94 83.7753 17.343 148 154 168 
229.359 84.1401 17.3422 152 158 170 
228.265 83.048 17.3444 145 153 164 
228.458 83.3205 17.3439 168 174 186 
228.064 88.0702 13.7986 184 184 184 
228.794 87.6818 13.845 188 188 186 
228.418 87.8818 13.869 183 183 181 
228.582 87.7961 13.6283 184 184 184 
228.086 88.0817 14.677 185 184 182 
229.624 87.225 14.5809 187 187 187 
229.408 87.3443 14.8396 194 188 190 
229.512 87.2832 14.2677 183 183 183 
229.856 87.0911 11.9603 100 98 103 
229.12 87.5175 5.25293 163 157 157 
227.857 88.1819 10.3307 181 182 174 
228.095 88.0532 10.4965 186 187 181 
227.847 88.1709 10.0276 175 176 180 
227.589 88.3285 10.1801 172 181 178 
227.247 88.4103 12.0839 75 93 117 
229.539 87.295 15.1087 188 188 188 
229.634 87.2381 12.1971 184 182 183 
229.345 87.3848 12.1028 191 189 190 
229.318 87.3926 14.536 188 188 186 
229.083 87.5269 14.0958 182 184 183 
229.372 87.363 13.9614 179 179 179 
229.627 87.2367 13.441 186 186 186 
230 87.0289 13.0413 129 149 173 
229.949 87.0642 12.6685 145 162 178 
228.183 88.0127 12.4467 181 180 178 
229.063 87.5202 10.7066 182 183 178 
229.299 87.3987 10.8925 178 179 174 
228.493 87.8373 10.6651 181 182 177 
228.752 87.6989 10.7847 188 189 184 
228.249 87.9727 11.3482 180 179 175 
228.466 87.8564 11.5465 184 183 179 
229.015 87.5602 11.1885 184 184 184 
228.662 87.7504 11.2486 179 178 174 
227.981 88.1162 11.2541 179 180 175 
229.912 87.0689 10.0923 147 155 166 
229.545 87.2756 11.0625 189 189 189 
229.842 87.1159 10.9603 193 189 188 
229.521 87.2829 10.6105 182 182 180 
229.854 87.1132 11.285 184 180 179 
229.761 87.156 8.29831 184 180 179 
229.371 87.3593 9.90705 179 178 173 
229.626 87.2233 10.0827 176 176 174 
229.129 87.4876 9.76034 187 186 182 
227.584 88.3295 10.8038 186 187 181 
227.99 88.1116 10.8039 193 194 188 
227.556 88.3459 10.5009 185 185 175 
227.553 88.3448 11.1723 190 189 185 
227.34 88.4584 11.3834 184 183 179 
229.187 87.4618 10.404 180 179 175 
228.673 87.7378 10.0474 181 182 176 
228.868 87.6355 10.4786 188 189 184 
228.841 87.6443 9.79537 183 184 179 
228.945 87.5905 10.1304 187 186 182 
228.424 87.8749 10.2933 185 186 181 
228.782 87.6733 9.49974 180 181 176 
228.055 88.0719 8.71652 181 172 173 
228.4 87.8884 9.01524 186 181 177 
228.498 87.828 9.37479 187 186 182 
228.158 88.0168 9.19513 188 184 185 
228.738 87.6997 9.18248 188 187 183 
228.799 87.6709 8.40852 180 176 175 
228.38 87.9044 8.6885 181 180 178 
228.653 87.7498 8.87543 186 185 181 
228.527 87.8235 8.43667 182 178 177 
228.316 87.9366 11.0505 184 183 179 
228.206 88.007 11.6887 182 181 176 
218.816 84.7986 17.3445 164 171 181 
218.954 85.1853 17.3446 160 166 180 
218.948 85.6467 17.3449 155 165 177 
218.964 84.4718 17.3443 155 165 177 
218.594 84.5388 17.3446 156 166 178 
219.04 85.9404 17.3449 164 174 184 
219.097 84.9124 17.3444 142 148 162 
218.655 85.0571 17.3448 157 163 175 
219.276 84.4254 17.344 155 167 179 
227.452 88.3275 13.1 102 114 130 
216.396 85.3185 17.3444 161 167 179 
216.148 85.6104 17.3436 153 163 175 
215.656 85.154 17.3438 162 168 180 
215.821 85.4393 17.3435 158 164 176 
215.973 85.8648 17.343 127 137 149 
216.038 85.226 17.3441 157 163 175 
222.318 88.1061 17.3445 178 185 195 
221.938 87.598 17.3436 151 157 169 
222.012 88.3334 17.3446 165 172 182 
222.021 87.912 17.3441 166 177 183 
221.653 87.4215 17.3431 161 171 183 
222.298 88.4226 17.3449 163 170 176 
221.768 88.1068 17.3441 169 176 186 
227.596 88.2525 12.3453 109 125 141 
218.961 87.3316 17.3452 143 151 162 
218.572 86.689 17.3454 149 161 173 
218.467 87.1916 17.3463 154 164 176 
218.765 87.0479 17.3454 162 172 184 
218.323 86.8742 17.3463 153 165 177 
219.093 87.6368 17.3452 163 173 185 
218.781 86.4005 17.3453 161 171 183 
218.982 86.7781 17.3451 162 172 184 
227.539 88.3066 9.84604 124 143 160 
227.727 88.1615 9.61891 136 156 180 
227.259 88.4188 9.79167 52 70 108 
227.49 88.2918 8.68543 88 97 114 
227.488 88.3154 9.51707 122 148 165 
227.277 88.4118 9.30943 36 51 90 
227.342 88.3715 5.45139 50 56 78 
229.514 87.3012 4.27073 184 180 179 
229.122 87.5128 4.34597 183 183 181 
229.86 87.1298 4.31984 184 180 179 
229.501 87.3509 4.86069 100 87 94 
229.791 87.1769 4.97893 105 92 99 
229.801 87.1838 4.62214 87 74 81 
228.83 87.6516 5.31677 182 181 179 
229.542 87.2689 5.67039 186 185 181 
230.251 86.9011 4.39384 179 181 180 
229.52 87.2768 5.35414 180 180 180 
229.785 87.1335 3.48447 176 179 188 
230.029 86.9241 2.64721 70 83 92 
228.041 88.0793 2.36695 177 176 172 
227.512 88.3289 2.16355 72 77 96 
228.599 87.7851 3.33591 181 180 175 
228.332 87.9286 3.15114 179 175 172 
228.239 87.9844 2.73423 183 179 176 
228.054 88.0771 2.98606 182 178 175 
228.201 88.0009 3.63324 78 67 61 
228.097 88.0548 3.30607 173 172 168 
228.914 87.6061 3.04177 180 179 177 
229.212 87.4377 3.3165 181 180 176 
228.699 87.7282 2.8685 179 178 174 
228.907 87.6154 3.45051 181 177 174 
228.501 87.84 2.65843 175 176 171 
228.626 87.7684 2.12575 171 170 168 
229.104 87.5102 2.59759 166 163 158 
228.949 87.5894 2.21205 163 159 156 
228.82 87.6665 2.48272 175 170 167 
228.374 87.9131 2.3297 175 174 170 
229.47 87.307 2.67746 173 172 168 
227.88 88.1462 3.58234 109 104 108 
228.012 88.1037 6.32818 191 187 178 
228.279 87.9525 6.27069 182 178 177 
228.506 87.8323 6.52202 190 186 183 
227.68 88.2044 5.44288 82 94 110 
228.067 88.0705 6.01279 182 181 177 
227.741 88.3287 5.16104 117 106 112 
227.893 88.1932 4.36431 176 181 177 
227.61 88.3625 4.43769 181 186 182 
228.062 88.0843 5.70517 185 184 180 
229.16 87.4716 3.85384 178 177 175 
228.023 88.1063 5.28449 184 176 174 
228.436 87.8796 5.7804 183 182 178 
228.73 87.715 5.68914 185 184 182 
228.994 87.566 5.5715 187 181 181 
228.949 87.6606 4.89299 93 80 90 
228.616 87.8349 5.01283 97 87 95 
228.71 87.7695 4.59965 87 72 75 
228.276 88.0217 5.09326 101 90 94 
228.515 87.8225 5.29517 185 181 180 
228.173 88.0139 6.77296 187 183 182 
227.924 88.1472 6.97262 187 181 181 
227.719 88.1506 6.46327 153 169 194 
227.754 88.1468 6.1508 116 129 146 
229.487 87.2789 6.60068 183 182 180 
229.041 87.5331 6.63654 188 187 185 
229.48 87.292 7.1155 187 183 182 
229.882 87.0552 6.61234 146 154 165 
229.267 87.4094 6.91094 176 175 173 
229.41 87.3373 7.43467 189 185 184 
229.687 87.169 6.81864 188 187 185 
228.42 87.8811 8.13605 182 181 179 
228.859 87.6398 8.07352 181 177 176 
229.159 87.4761 7.82681 181 180 178 
228.092 88.059 7.47654 184 183 181 
228.446 87.8646 6.92759 190 186 185 
228.211 87.9926 7.13319 184 183 181 
227.46 88.3416 5.86176 131 152 173 
227.493 88.2999 6.16335 141 153 167 
227.411 88.3502 6.72832 144 160 183 
205.842 88.2227 5.20728 86 81 87 
205.374 87.2431 3.21166 31 38 64 
205.1 86.8283 3.02473 173 167 169 
205.807 88.1295 2.6321 178 178 180 
205.676 87.8799 2.28122 176 175 180 
205.949 88.3904 2.2609 180 179 185 
205.955 88.4067 2.58731 181 181 183 
204.453 85.5506 3.27213 12 20 33 
204.902 86.3218 3.2093 33 45 67 
205.057 86.5812 3.28133 122 141 171 
204.666 86.015 2.77368 188 192 195 
204.901 86.4423 2.72005 180 184 187 
205.041 86.7035 2.66331 181 185 188 
205.27 87.1505 2.86189 180 178 181 
205.615 87.5798 5.76093 97 134 163 
205.686 87.9149 2.91123 168 166 171 
205.659 87.8579 2.6112 182 181 186 
205.274 87.2112 4.52865 147 145 148 
204.947 86.5658 4.38602 190 189 194 
205.722 87.9698 4.33571 184 184 186 
205.565 87.7244 4.46523 209 204 208 
204.638 85.9732 3.9517 182 183 187 
205.568 87.6515 3.89224 178 181 186 
205.051 86.6189 3.59596 111 131 156 
204.789 86.3038 4.54262 87 80 87 
205.083 86.8837 4.6492 76 65 71 
204.901 86.5476 4.70035 81 70 78 
204.763 86.0129 6.25636 128 160 181 
204.836 86.1477 5.81146 133 160 187 
204.466 85.6352 3.98227 187 186 191 
204.697 86.1706 5.09412 88 76 80 
204.425 85.6565 5.05148 88 76 80 
204.55 85.9168 4.96496 96 84 88 
204.919 86.3034 6.49916 31 49 73 
204.954 86.3674 5.98929 105 126 155 
205.045 86.5394 6.64436 101 137 169 
205.052 86.5409 6.26083 105 141 173 
205.069 86.5558 5.66097 115 143 191 
205.028 86.8109 4.96756 77 67 76 
205.211 87.1451 4.81974 82 76 86 
205.195 86.8177 6.54471 104 134 170 
205.198 86.8017 6.03978 106 137 168 
205.291 86.9884 6.27012 107 138 167 
205.935 88.3941 4.49184 157 158 160 
206.02 88.6147 4.73709 85 74 82 
205.364 87.1175 5.77485 111 142 173 
204.709 86.0579 6.8651 122 141 173 
205.424 87.2372 6.0516 106 134 171 
205.575 87.5154 6.07659 109 138 170 
209.127 85.6848 17.3448 154 164 176 
208.88 85.01 17.3443 152 164 178 
208.545 85.4558 17.344 137 149 163 
208.846 86.2599 17.3447 160 170 182 
209.472 84.9731 17.3451 121 134 150 
209.766 85.1169 17.3455 155 163 174 
208.449 85.0776 17.3437 168 178 188 
208.839 85.8369 17.3445 161 173 187 
209.255 85.2452 17.3449 138 148 160 
209.135 86.0584 17.345 153 165 177 
209.496 85.5589 17.3453 159 165 179 
208.888 85.4194 17.3444 136 148 162 
209.965 84.7635 17.3457 148 158 170 
204.67 86.0147 11.727 120 124 127 
205.728 87.9611 8.53953 190 191 196 
205.618 87.7625 11.1768 176 175 180 
205.586 87.704 10.8262 177 176 181 
205.647 87.8103 10.4526 180 179 184 
205.767 88.0279 6.36905 180 179 184 
205.772 88.0436 6.78354 179 179 181 
205.399 87.3522 7.15089 175 174 179 
205.62 87.7634 7.09223 177 178 183 
205.467 87.4774 7.72013 179 178 183 
205.582 87.6923 7.43217 183 182 187 
205.339 87.2395 7.54284 185 184 189 
205.556 87.6098 11.7624 101 99 120 
205.843 88.1727 12.8857 186 185 190 
205.791 88.058 13.2908 183 182 187 
206.18 88.7996 13.8353 182 181 186 
206.033 88.5226 13.5271 185 184 189 
205.944 88.3604 13.1755 185 184 189 
206.312 89.0496 14.0737 182 181 186 
205.462 87.4647 13.3882 182 186 197 
205.649 87.7848 13.3274 168 172 183 
205.702 87.8519 9.50898 40 52 66 
205.703 87.8652 10.0301 51 58 74 
205.633 87.6608 9.79227 102 135 168 
205.754 87.9965 9.18594 176 175 180 
205.635 87.6641 8.90776 109 140 171 
205.603 87.5758 9.20026 102 133 161 
205.591 87.5392 9.49994 86 138 159 
205.465 87.4738 10.2307 174 174 182 
205.272 87.0473 10.028 101 127 152 
205.148 86.7833 9.85291 91 124 159 
205.183 87.0192 11.567 183 187 186 
204.752 85.9885 8.9175 107 134 164 
205.136 86.7322 8.61972 49 63 92 
205.74 87.9499 8.88197 173 171 176 
205.354 87.1058 8.64827 77 106 138 
205.414 87.4287 11.527 190 186 200 
205.334 87.2392 11.2814 177 176 181 
205.432 87.4209 11.0311 181 180 185 
205.669 87.705 12.5105 99 132 163 
205.653 87.6791 12.9875 101 136 164 
205.671 87.6962 12.0694 112 143 174 
205.526 87.4283 12.6416 98 119 148 
205.384 87.1564 12.867 101 134 165 
205.511 87.3969 13.0016 103 126 158 
205.515 87.4031 12.053 84 98 125 
204.851 86.1772 12.5385 104 124 157 
204.797 86.0728 12.1437 94 133 164 
204.682 85.8835 12.3932 103 133 171 
204.897 86.2688 12.9673 0 5 37 
205.788 88.0802 14.1044 180 179 184 
205.655 87.8366 13.8581 182 181 186 
205.919 88.3235 13.9065 183 182 187 
205.898 88.2799 14.3938 180 179 184 
206.144 88.7373 14.2478 185 184 189 
206.006 88.4824 14.156 179 178 183 
205.502 87.5531 13.77 183 182 187 
205.792 88.0905 13.7643 177 176 181 
205.642 87.8091 14.1623 181 180 185 
205.315 87.2106 13.4507 188 188 196 
205.29 87.0704 13.1741 108 135 165 
204.624 85.8405 13.1212 150 170 197 
204.75 86.0161 12.8935 94 133 172 
205.038 86.5137 12.6914 99 135 169 
204.161 85.0684 12.8666 180 179 184 
204.333 85.389 12.5251 182 181 186 
204.138 85.0254 12.5175 181 180 185 
204.044 84.8512 12.286 180 180 182 
204.214 85.1651 13.1979 188 187 192 
205.091 86.7884 13.3557 175 185 195 
204.866 86.4035 13.4215 178 185 193 
205.004 86.7126 11.6031 191 188 181 
205.403 87.1845 12.3077 105 132 162 
204.545 85.7238 12.6244 182 181 179 
204.843 86.3051 11.7264 118 122 121 
204.663 86.0019 11.0499 177 178 180 
204.587 85.8589 10.6521 179 178 183 
204.801 86.2655 11.3018 183 183 191 
204.52 85.732 10.2477 178 177 182 
204.546 85.7762 11.2493 188 188 190 
204.837 86.3234 10.64 184 183 188 
205.102 86.8144 10.6939 178 179 183 
204.929 86.4978 10.9285 180 181 185 
204.694 86.0574 10.4449 185 184 189 
205.057 86.7369 11.1028 183 184 188 
205.66 87.7226 6.6971 109 145 179 
205.397 87.2832 6.84569 111 128 156 
205.027 86.4926 8.81793 103 139 173 
204.813 86.1001 9.28925 107 142 170 
204.975 86.4257 9.60315 101 132 160 
204.868 86.2058 9.78515 124 139 170 
204.992 86.5332 9.9867 103 129 162 
204.799 86.253 7.97562 180 180 182 
204.651 85.9827 7.95646 182 182 184 
205.064 86.7368 8.11994 181 182 186 
204.749 86.1621 7.46371 186 185 190 
205.221 87.023 8.10604 180 184 185 
204.904 86.4461 7.44425 184 183 188 
205.001 86.6222 7.7999 185 184 189 
205.405 87.1981 9.65819 107 140 173 
205.496 87.3542 8.94217 0 5 23 
205.335 87.0785 9.28893 108 139 167 
205.231 86.9008 9.56405 102 136 164 
204.749 86.084 10.0503 96 120 144 
205.036 86.6924 6.90933 116 134 154 
205.672 87.8684 7.84197 181 181 183 
205.721 87.9552 7.33133 180 179 184 
205.458 87.2987 6.39586 47 70 111 
205.613 87.5706 6.42215 100 131 162 
205.31 87.0817 6.63972 106 143 172 
205.305 87.2442 8.37774 175 175 175 
204.681 86.0321 7.19299 188 188 188 
204.56 85.8069 7.37071 188 188 188 
204.568 85.8259 7.70544 191 191 191 
204.56 85.8028 6.99954 187 188 192 
203.268 83.5059 5.23283 123 121 124 
203.499 83.871 2.40327 161 161 173 
203.513 83.8871 2.09932 157 158 163 
204.127 85.0267 2.14774 188 189 193 
204.267 85.2863 2.03509 185 189 192 
204.016 84.8284 2.52672 188 189 193 
203.841 84.4938 2.29125 183 184 188 
203.87 84.5579 2.71511 185 186 188 
203.255 83.3955 2.46488 184 185 189 
203.353 83.5852 2.69636 167 167 175 
203.343 83.5688 2.22869 168 168 178 
203.494 83.8581 2.86727 161 162 167 
203.488 83.8609 5.24487 120 107 114 
203.728 84.2801 7.18193 193 194 198 
203.435 83.7343 7.45908 195 195 197 
203.763 84.3417 7.55117 195 196 200 
203.508 83.8739 6.87445 197 196 201 
203.558 83.9608 7.77037 196 197 201 
203.361 83.601 7.01113 201 200 205 
203.936 84.6641 7.426 192 193 197 
203.512 83.8793 7.20151 194 194 202 
203.604 84.0486 7.45691 191 192 196 
203.4 83.6681 7.81777 194 195 199 
203.399 83.674 6.6649 194 193 198 
203.23 83.23 5.52051 125 140 169 
203.156 83.2442 8.49813 116 114 119 
203.402 83.6689 3.69304 177 176 182 
203.288 83.4774 8.72766 186 185 190 
203.138 83.1601 6.87196 65 85 110 
203.145 83.2237 4.37243 190 191 195 
203.271 83.4183 3.94865 184 185 189 
203.049 83.009 4.16936 187 186 192 
203.34 83.5643 4.25538 197 198 202 
203.457 83.8348 4.45434 203 203 205 
203.279 83.5216 4.55785 68 66 69 
203.549 83.9454 3.75566 213 213 215 
203.527 83.9844 4.76506 90 79 83 
203.367 83.7375 4.95354 100 87 94 
204.183 85.1384 5.30761 219 220 225 
204.01 84.8269 5.24237 167 168 173 
203.864 84.5277 5.33463 187 188 193 
204.357 85.4351 5.43497 194 196 208 
203.747 84.4211 4.80457 91 79 89 
203.872 84.6126 5.04316 111 100 106 
203.289 83.3849 3.19574 49 57 76 
203.386 83.6634 3.08979 204 205 207 
203.127 83.3196 4.93816 91 80 86 
203.456 83.7659 4.06585 193 194 198 
203.955 84.7816 4.72564 87 74 83 
204.098 85.0489 4.75102 95 82 91 
203.731 84.2703 4.0873 196 200 203 
203.597 84.0212 4.21901 189 190 192 
203.466 83.7956 6.32466 195 194 199 
203.89 84.5729 5.73552 196 197 202 
203.716 84.2531 5.92587 189 190 194 
204.083 84.9301 5.71185 197 200 209 
203.627 84.0844 5.63525 190 191 195 
203.509 83.8705 5.96467 187 188 192 
203.631 84.1005 6.20201 193 194 198 
204.235 85.2107 5.60793 191 196 200 
203.056 83.0378 7.17828 173 174 179 
203.222 83.3336 7.3444 184 186 185 
203.259 83.4094 7.6917 189 190 194 
203.952 84.6912 6.28316 203 204 209 
203.788 84.3895 6.40699 196 197 201 
204.112 84.9882 7.11419 199 200 205 
203.617 84.0755 6.57985 193 194 198 
204.349 85.4227 6.03406 195 197 209 
203.983 84.7488 6.64635 193 194 199 
203.741 84.3038 6.84001 196 195 200 
204.016 84.809 5.9801 194 197 206 
204.218 85.1823 6.36157 192 195 204 
203.87 84.5424 7.09806 198 197 202 
204.197 85.1426 6.72005 199 199 209 
204.163 85.0792 6.00203 190 193 202 
204.413 85.5402 5.74457 195 193 206 
204.08 84.9282 7.41809 197 198 203 
203.861 84.5239 6.04429 194 195 200 
204.406 85.5203 6.97866 198 200 199 
204.44 85.5842 6.63876 199 204 210 
204.527 85.7434 6.35738 243 236 230 
204.262 85.26 7.02544 197 198 200 
204.362 85.4453 6.37577 199 202 211 
204.497 85.6895 6.00193 221 221 211 
204.22 85.1826 7.31969 196 197 201 
204.217 85.2852 4.9733 95 84 90 
203.858 84.5932 4.43927 186 187 191 
204.037 84.9158 4.4224 187 191 194 
204.333 85.3832 3.81223 194 195 199 
204.108 84.9676 3.90114 182 186 189 
204.372 85.4571 2.85576 193 194 198 
204.163 85.0957 2.53042 187 187 195 
204.069 84.9128 3.23709 186 187 191 
204.003 84.799 2.91173 190 191 195 
203.805 84.4328 3.24448 186 187 191 
204.248 85.2369 3.35164 185 194 193 
204.18 85.1081 3.63276 70 65 69 
204.213 85.1801 2.93569 186 187 191 
204.31 85.3611 2.576 193 194 198 
203.939 84.6741 3.39287 171 174 179 
203.988 84.7558 3.68893 75 73 76 
204.656 85.8636 5.70088 137 156 186 
204.462 85.634 7.97403 189 188 193 
204.417 85.5457 7.4694 194 194 194 
204.184 85.121 7.64501 195 194 199 
204.337 85.4028 7.7351 190 189 194 
204.37 85.5742 4.67807 97 86 94 
204.61 85.8307 9.7785 176 197 218 
204.656 85.8985 6.60454 113 138 160 
204.516 85.7111 8.86641 187 180 187 
204.272 85.2761 8.88463 183 182 187 
204.111 84.9852 8.17883 188 187 192 
204.041 84.8561 7.86864 195 196 201 
204.315 85.3636 8.08475 191 190 195 
203.993 84.767 8.48924 188 187 192 
203.946 84.6805 9.13129 184 184 184 
203.936 84.661 9.62386 187 187 189 
204.124 85.0061 9.59715 184 184 186 
203.774 84.365 9.45486 188 188 190 
204.276 85.285 9.79369 185 184 189 
203.802 84.4158 9.14207 181 181 183 
204.284 85.2971 10.1996 178 177 182 
203.822 84.4482 10.1639 183 182 187 
204.082 84.9261 10.2238 184 183 188 
203.784 84.3819 9.85072 180 180 182 
203.947 84.6738 10.7742 181 181 183 
203.946 84.6756 10.402 187 186 191 
203.98 84.7409 9.9342 182 182 184 
203.821 84.4452 10.5881 182 182 184 
204.167 85.0796 10.5694 180 179 184 
204.142 85.038 9.93931 181 181 183 
203.878 84.552 13.314 179 179 181 
204.21 85.1674 13.5049 183 182 187 
204.022 84.8194 13.3067 179 178 183 
204.041 84.854 13.6713 179 178 183 
203.777 84.3643 13.0195 176 175 180 
203.949 84.6831 13.9431 183 182 187 
203.149 83.1085 13.1803 109 136 165 
203.926 84.6351 12.6184 179 178 183 
203.92 84.626 12.9445 179 178 183 
203.905 84.5973 11.2326 181 180 185 
203.949 84.6771 11.6079 176 176 178 
204.324 85.3796 11.785 178 178 180 
204.053 84.8732 11.393 185 184 189 
204.088 84.9377 11.7234 177 177 179 
204.148 85.0483 12.0169 183 183 185 
204.443 85.602 11.9573 183 183 191 
204.218 85.1807 11.5784 177 177 179 
203.97 84.7148 11.9768 180 180 182 
204.225 85.1919 11.2762 179 178 183 
204.034 84.8364 11.074 181 180 185 
204.448 85.6175 12.3491 179 182 187 
204.362 85.4469 12.9782 184 183 188 
204.344 85.4135 13.3689 178 177 182 
204.516 85.7555 11.5591 184 183 188 
203.539 83.9263 9.52521 173 173 175 
203.353 83.5943 9.75943 187 185 188 
203.568 83.9799 11.1436 181 182 186 
203.348 83.5779 11.0438 186 187 191 
203.478 83.8136 10.8361 181 180 185 
203.712 84.2436 10.9752 178 179 183 
203.339 83.5597 10.7444 181 180 185 
203.437 83.7413 11.2893 182 183 187 
203.157 83.2586 11.4828 175 181 179 
203.719 84.2567 11.726 176 176 178 
203.532 83.9149 11.5282 184 184 186 
203.694 84.2102 11.3693 186 187 191 
203.824 84.4475 11.9994 182 181 186 
203.484 83.8266 12.8236 180 180 182 
203.632 84.099 12.964 184 183 188 
203.468 83.7955 13.2976 187 186 191 
203.447 83.7559 13.6998 176 175 180 
203.31 83.5019 14.2863 178 178 180 
203.394 83.6576 14.0154 182 182 184 
203.613 84.0619 13.3151 181 180 185 
203.379 83.6332 13.0402 183 182 187 
203.254 83.4325 14.7817 184 184 192 
203.278 83.4375 12.033 181 180 185 
203.298 83.4488 12.3915 185 185 187 
203.238 83.3021 9.71151 88 98 110 
203.437 83.7535 8.70509 185 184 189 
203.584 84.0169 8.73807 183 182 187 
203.349 83.5591 9.42123 194 193 198 
203.462 83.787 9.22235 187 186 191 
203.284 83.4568 9.06206 184 183 188 
203.2 83.1622 11.8245 43 57 83 
203.485 83.8273 10.4949 187 186 191 
203.559 83.9682 9.92956 178 178 180 
203.67 84.1683 10.4681 181 185 188 
203.415 83.7015 10.2217 185 185 187 
203.661 84.1545 10.1445 179 178 183 
203.179 83.2645 10.9669 181 182 186 
203.031 82.9897 11.0222 180 182 181 
203.175 83.2344 10.1408 178 190 212 
203.189 83.276 8.14003 188 191 196 
203.051 83.0355 7.4881 185 186 191 
205.901 88.2889 16.7186 162 162 172 
205.991 88.4524 16.4727 168 169 173 
205.643 87.6457 15.6168 92 128 164 
205.583 87.5232 15.2587 83 122 161 
204.724 86.0551 14.962 88 90 103 
205.427 87.2162 15.2475 107 133 168 
205.528 87.4247 15.8229 90 113 145 
205.497 87.3604 15.5202 6 21 42 
205.653 87.7343 15.0025 14 21 40 
205.461 88.5145 17.4664 143 110 119 
204.885 86.9952 17.1065 149 153 156 
205.505 87.92 17.0283 159 161 173 
205.456 87.6752 16.8613 149 151 163 
204.729 86.6551 17.2241 169 166 173 
204.958 86.7521 16.9431 145 148 157 
205.403 87.4124 16.7153 145 148 153 
205.425 87.286 16.4407 85 102 132 
205.479 87.8797 17.5405 95 46 65 
205.731 88.1728 17.0058 170 170 180 
205.894 88.2707 15.5056 190 189 194 
205.864 88.2148 16.1735 179 180 185 
205.888 88.2591 15.8481 188 187 192 
205.911 88.3019 15.1862 188 187 192 
205.697 87.9619 16.7429 164 166 178 
205.002 86.6692 16.5591 132 145 162 
205.248 86.9194 16.1759 70 108 145 
205.238 87.0235 16.5361 68 82 108 
205.034 86.5633 16.1095 71 108 150 
204.575 85.9651 16.7375 136 138 150 
204.422 85.7712 16.9407 141 141 151 
205.144 87.1618 16.9318 133 136 141 
204.972 87.3442 17.1609 169 170 175 
204.81 86.468 16.9824 148 151 160 
204.463 85.7617 17.52 188 154 153 
204.263 84.943 17.3482 71 78 94 
203.781 84.8491 17.5435 169 122 142 
203.25 84.2962 17.2888 167 171 172 
204.155 85.2859 16.8528 145 144 158 
204.103 85.2931 17.5373 179 117 138 
203.941 85.5816 17.3125 149 136 145 
204.711 85.7155 17.3469 59 66 84 
205.337 85.4085 17.3462 125 133 144 
205.801 84.7041 17.3443 136 148 164 
205.233 86.0115 17.3486 87 90 105 
205.139 85.6593 17.3468 44 48 59 
205.627 85.0087 17.3452 116 128 142 
205.448 85.7214 17.3479 127 136 151 
204.944 85.9205 17.3475 31 42 60 
204.436 86.5967 17.3339 146 129 139 
204.664 86.0248 17.4252 57 18 23 
204.247 85.9454 17.2218 179 177 182 
204.921 85.0885 17.3463 30 41 59 
204.871 85.424 17.3467 38 44 58 
205.041 84.6568 17.3453 57 64 83 
204.645 84.4676 17.3472 55 62 81 
204.377 84.6422 17.3486 65 77 91 
203.721 84.4129 16.9226 146 148 160 
205.312 87.0633 17.3654 50 57 73 
204.538 85.7655 14.9468 105 99 99 
204.873 86.4039 14.696 184 183 188 
204.143 85.0818 16.6321 137 141 152 
203.516 84.353 17.5443 168 120 134 
204.001 84.944 16.9001 140 143 152 
203.51 84.3139 17.1161 173 172 180 
203.787 84.6677 17.076 166 166 174 
203.389 83.4855 17.3676 92 80 92 
203.59 84.0209 16.4839 135 135 143 
203.37 83.6154 16.233 175 176 180 
203.759 84.327 16.5702 135 138 147 
204.192 85.1475 16.2622 172 173 177 
204.169 85.0963 15.9395 180 181 185 
203.793 84.3944 13.838 178 177 182 
203.558 83.9596 14.301 178 177 182 
203.724 84.2679 14.14 178 177 182 
203.703 84.228 13.5679 184 184 186 
203.624 84.0829 13.9059 178 178 180 
203.404 83.6756 14.5402 183 183 185 
203.966 84.7357 16.5054 156 161 167 
203.632 84.0981 16.1421 170 169 174 
203.98 84.7403 15.9308 177 177 179 
203.784 84.3781 16.1036 175 174 182 
203.923 84.632 16.2079 178 182 185 
204.826 86.1094 15.3539 87 127 162 
204.357 85.44 15.8933 176 177 181 
204.293 85.3396 16.561 139 139 149 
204.343 85.4246 16.2663 169 170 174 
204.623 85.9198 14.091 173 172 177 
204.574 85.8233 14.5323 182 181 186 
204.499 85.6912 16.1586 175 167 165 
204.37 85.4656 15.258 175 175 177 
204.198 85.1458 15.6056 178 178 180 
204.451 85.6121 15.5824 175 178 183 
204.896 86.304 15.0618 1 2 20 
204.753 86.1627 14.4037 184 183 188 
204.897 86.4267 14.3927 172 171 176 
204.726 85.9605 15.6238 76 114 150 
204.628 85.8361 15.3582 155 175 202 
204.948 86.3306 15.8206 60 89 119 
204.828 86.326 13.8055 177 176 181 
204.887 86.4251 14.0884 180 179 184 
204.669 86.0135 13.806 182 181 186 
204.283 85.2919 14.3908 180 179 184 
204.422 85.5491 14.6025 186 185 190 
204.065 84.8962 14.1547 179 178 183 
203.859 84.517 14.9341 181 181 183 
203.976 84.7325 14.6994 178 178 180 
203.801 84.4086 14.5531 181 181 183 
204.02 84.8144 15.4934 183 183 183 
203.715 84.2496 14.8246 182 182 184 
204.065 84.8969 15.1033 185 185 187 
203.887 84.5684 15.2302 181 181 183 
203.642 84.1152 14.5546 183 182 187 
203.889 84.572 14.218 177 176 181 
209.634 84.5344 17.3455 154 161 177 
209.143 84.376 17.3451 149 161 173 
209.167 84.729 17.3448 127 139 151 
208.86 84.5741 17.3446 147 157 169 
208.611 84.7655 17.3441 157 167 179 
207.742 86.719 17.3444 146 159 167 
208.689 86.7723 17.3447 144 153 168 
208.051 86.7581 17.3445 151 161 173 
207.671 87.4673 17.3441 142 154 166 
207.973 87.6618 17.3442 151 163 177 
207.475 87.1688 17.3442 170 180 190 
207.807 87.0819 17.3443 159 168 177 
207.938 86.4686 17.3445 166 176 186 
207.14 86.6462 17.3442 142 154 168 
207.423 86.7476 17.3443 137 141 153 
208.238 87.0667 17.3444 99 108 123 
207.949 87.3505 17.3443 150 159 176 
207.782 87.9087 17.3441 156 170 183 
207.438 86.4294 17.3444 142 154 168 
208.243 86.4885 17.3446 132 141 156 
208.388 86.7555 17.3446 156 165 180 
215.768 86.116 17.4495 163 180 190 
216.155 87.5061 17.6881 156 174 184 
216.261 86.89 18.0972 14 37 81 
215.253 86.3386 17.3431 142 155 161 
215.492 86.242 17.8313 190 203 211 
216.01 87.3814 17.4241 130 140 152 
215.6 86.6341 17.697 176 188 200 
215.034 87.4346 17.3435 163 167 178 
214.374 87.2936 17.3444 169 179 189 
214.055 87.3325 17.3447 150 156 168 
214.327 87.7525 17.3443 162 168 180 
215.238 87.0792 17.3434 171 175 186 
214.555 88.0055 17.344 170 174 185 
214.945 87.7755 17.3436 166 170 181 
214.662 88.7075 17.3438 168 174 186 
214.468 88.3352 17.3441 170 174 185 
214.908 88.1483 17.3436 166 173 183 
214.797 87.116 17.3439 162 169 179 
214.611 87.4854 17.344 160 167 177 
214.844 88.45 17.3436 174 178 189 
213.822 87.9828 17.3443 152 158 170 
212.503 88.007 17.3441 156 166 178 
213.508 87.9942 17.3442 172 176 187 
214.062 88.3433 17.3441 158 164 178 
213.428 87.6376 17.3445 142 148 160 
213.169 88.1994 17.3441 158 164 176 
212.951 87.9165 17.3442 143 149 161 
213.638 87.1566 17.3448 169 175 187 
213.921 88.6451 17.3438 164 174 184 
213.436 88.4466 17.3439 168 175 185 
213.023 87.5085 17.3445 154 166 178 
214.249 88.6718 17.3438 162 170 181 
214.143 87.9905 17.3443 169 173 185 
213.747 87.6667 17.3445 157 163 177 
213.284 87.3499 17.3447 162 172 184 
212.675 87.7579 17.3443 155 165 177 
213.727 88.3547 17.344 146 152 166 
212.867 88.2137 17.344 164 170 182 
210.807 83.8267 17.3448 158 168 180 
210.932 84.2336 17.3447 113 122 137 
211.177 83.868 17.3443 132 145 154 
210.529 84.5264 17.3452 164 176 188 
210.634 84.1017 17.3451 155 167 181 
211.04 83.2133 17.3444 172 184 196 
211.121 83.5139 17.3444 154 166 178 
210.223 84.5778 17.3456 141 151 163 
210.85 84.5537 17.3448 148 166 176 
212.364 84.7032 17.3451 167 173 185 
212.714 85.0857 17.3447 159 165 177 
212.592 85.7211 17.3445 147 157 169 
212.882 85.6188 17.3444 146 156 168 
212.906 84.7086 17.3447 155 162 172 
213.239 85.2236 17.3443 155 165 177 
213.257 84.7799 17.3445 158 164 176 
212.484 86.241 17.3444 160 167 177 
212.397 85.2634 17.3448 162 170 183 
212.267 85.5911 17.3448 159 168 183 
212.679 85.3964 17.3446 161 167 179 
213.49 85.0483 17.3442 161 167 181 
212.232 84.9917 17.3451 154 160 172 
212.38 85.9354 17.3446 143 150 160 
213.04 84.9886 17.3445 169 175 187 
210.733 86.8834 17.3439 168 174 188 
211.316 86.9506 17.3449 165 172 182 
212.072 87.897 17.344 151 161 171 
211.051 87.3 17.3439 132 138 152 
211.677 87.4178 17.3445 172 178 190 
211.778 87.7224 17.344 160 166 178 
211.375 87.4565 17.344 154 160 172 
210.75 87.188 17.3438 155 161 173 
210.459 87.1007 17.3436 154 160 172 
210.797 88.2189 17.3445 154 164 174 
210.229 87.8673 17.3443 153 166 175 
211.801 88.0814 17.3442 158 168 178 
209.989 88.5467 17.345 150 156 168 
211.028 87.9352 17.3442 166 176 188 
210.473 88.0493 17.3444 160 168 179 
210.496 88.3994 17.3447 140 146 160 
210.602 87.5604 17.3439 168 175 183 
209.884 88.0329 17.3445 147 157 169 
211.425 88.3001 17.3445 156 166 178 
211.13 87.637 17.3439 157 165 178 
209.666 88.9608 17.3454 123 133 145 
210.189 87.2888 17.3437 155 161 173 
211.521 87.8918 17.3441 167 177 189 
210.134 88.2579 17.3447 166 172 184 
209.979 87.5856 17.344 171 180 195 
211.109 88.3037 17.3446 143 152 167 
210.712 87.8422 17.3442 161 168 178 
210.233 88.7511 17.3451 159 169 181 
210.783 88.5385 17.3448 154 160 174 
208.369 87.5483 17.3441 124 137 153 
209.705 86.9151 17.3438 145 152 168 
209.014 86.7136 17.3445 155 164 179 
208.909 87.0753 17.3442 147 159 173 
209.233 86.9271 17.3441 151 161 173 
208.933 87.38 17.3438 141 153 167 
209.314 87.295 17.3437 158 170 182 
208.593 87.2923 17.3442 158 170 184 
208.258 87.842 17.3438 140 153 169 
208.713 87.6215 17.3437 154 167 183 
208.033 88.1955 17.3442 153 166 182 
209.134 88.1393 17.3444 158 171 180 
208.661 88.4402 17.3446 138 148 158 
209.697 88.3611 17.3448 157 167 179 
209.118 87.8148 17.344 175 181 197 
208.456 88.1373 17.3442 152 160 173 
208.935 88.583 17.3448 166 176 186 
209.507 87.7727 17.3441 169 175 187 
209.306 88.5249 17.3449 147 156 171 
209.766 87.3406 17.3437 152 166 179 
208.82 88.0124 17.3442 140 150 160 
209.45 88.0872 17.3444 137 147 159 
209.566 88.678 17.3451 136 146 158 
209.878 86.6667 17.3439 159 169 181 
209.538 86.4068 17.3444 154 164 176 
209.876 85.8386 17.3448 127 136 151 
209.561 85.9609 17.3449 155 161 173 
209.919 85.519 17.3451 156 165 180 
209.962 86.1545 17.3444 149 159 171 
209.177 86.4533 17.3447 155 161 173 
210.089 85.245 17.3453 135 144 159 
209.475 86.7202 17.3442 158 161 178 
211.994 84.7911 17.3451 128 138 150 
211.67 84.69 17.3448 164 170 182 
211.969 85.1671 17.3448 156 166 178 
211.596 84.9824 17.3446 158 164 176 
211.393 84.5264 17.3447 138 144 156 
210.573 85.2258 17.3446 144 154 166 
210.824 84.865 17.3446 143 153 165 
210.429 85.5374 17.3444 171 181 193 
210.266 84.9924 17.3453 172 182 192 
210.228 85.877 17.3444 142 152 164 
212.115 87.0551 17.3444 152 159 167 
212.04 86.7478 17.3445 150 155 174 
212.184 87.5562 17.3442 163 173 185 
211.6 87.0553 17.3447 147 157 167 
212.319 86.603 17.3444 162 168 180 
213.097 85.9557 17.3444 173 179 191 
213.079 86.3476 17.3445 160 166 178 
213.454 86.2124 17.3446 153 159 171 
213.733 86.3258 17.3447 164 171 181 
213.386 85.7171 17.3444 150 160 170 
213.54 86.6558 17.3448 168 175 185 
212.769 85.9664 17.3443 139 145 157 
213.68 85.5968 17.3444 156 162 174 
213.715 85.9359 17.3446 160 166 178 
212.909 86.6208 17.3446 151 157 169 
213.212 86.6794 17.3447 164 170 182 
213.698 85.2674 17.3443 150 156 168 
213.076 86.958 17.3446 160 170 180 
212.531 86.9452 17.3444 160 171 177 
212.601 87.4013 17.3443 151 161 173 
212.909 87.2102 17.3445 157 167 179 
212.322 87.2868 17.3442 154 168 177 
213.394 86.9394 17.3448 157 163 175 
214.146 85.3169 17.3434 167 171 183 
214.469 85.9013 17.3431 138 148 158 
214.91 86.3088 17.3423 167 173 185 
214.067 85.6367 17.3438 156 162 174 
214.024 86.234 17.3442 171 177 189 
214.517 86.2705 17.3432 168 178 188 
214.142 86.6512 17.3442 152 158 170 
214.916 85.9861 17.3421 138 148 158 
214.492 85.587 17.3428 134 144 154 
214.165 85.9267 17.3437 163 167 176 
215.218 85.5284 17.3427 162 172 182 
214.747 85.1465 17.3434 155 161 173 
215.117 84.6891 17.344 149 161 173 
214.394 84.9539 17.3438 160 166 178 
214.919 85.6135 17.3426 153 163 173 
215.202 85.164 17.3432 161 167 179 
214.793 84.5835 17.3442 154 162 175 
214.082 85.0007 17.3438 143 149 161 
215.244 85.9751 17.342 160 170 180 
214.444 85.2722 17.3433 165 169 181 
216.014 85.9487 17.8279 158 178 185 
215.714 86.8236 17.9082 170 187 195 
203.511 84.0408 16.8399 146 146 158 
205.694 87.6627 17.3505 85 91 105 
207.891 85.6684 17.3433 136 145 160 
208.271 85.6414 17.3437 147 159 173 
208.51 85.9411 17.3441 170 180 192 
208.434 86.236 17.3442 151 160 175 
208.201 85.3431 17.3435 152 164 176 
208.137 85.9395 17.3437 128 137 152 
207.343 85.4877 17.3426 147 159 173 
207.051 85.9875 17.344 149 161 177 
207.097 85.6781 17.344 149 161 175 
207.09 85.3247 17.3444 154 166 180 
206.73 85.9109 17.3441 144 156 172 
206.153 84.7082 17.3438 149 161 177 
206.408 85.2496 17.3439 151 161 173 
206.677 84.5294 17.3442 152 164 178 
206.745 85.0872 17.3442 127 139 153 
206.42 84.8592 17.3439 141 149 162 
206.694 85.5398 17.3441 116 128 142 
206.922 84.8296 17.3443 159 167 178 
205.413 86.3013 17.3493 81 84 103 
205.911 85.6832 17.3463 150 159 174 
206.133 85.9275 17.3461 141 150 165 
206.067 84.9988 17.3444 159 171 187 
206.394 85.7056 17.3448 162 171 186 
206.099 85.2976 17.3449 136 146 158 
205.581 86.0049 17.3481 86 98 112 
205.724 85.4091 17.3464 138 147 162 
206.553 86.1697 17.3452 152 164 178 
205.937 86.2299 17.3474 78 87 102 
206.248 86.231 17.3463 130 139 154 
205.342 84.8926 17.345 112 119 137 
205.536 84.4795 17.3443 150 162 178 
205.561 87.3445 17.3466 59 75 90 
204.767 86.5651 17.5463 139 101 116 
203.877 84.3368 17.3481 69 72 91 
204.84 84.0815 17.3454 102 108 124 
204.445 84.2263 17.3474 54 57 74 
204.596 83.8461 17.3457 113 119 135 
205.201 87.687 17.5527 184 139 159 
205.989 88.6094 17.517 190 144 155 
204.155 84.0047 17.3481 93 96 111 
204.276 83.7032 17.3456 87 93 105 
203.67 83.8089 17.3468 60 73 92 
203.089 83.3854 16.9061 154 154 162 
203.715 83.4791 17.3495 69 81 97 
203.628 83.1895 17.3492 59 72 89 
204.033 83.3571 17.3475 19 31 45 
203.968 83.664 17.3472 45 48 63 
208.41 84.1217 17.345 124 136 152 
208.133 83.6885 17.3449 155 165 177 
207.75 84.1048 17.3448 145 151 167 
208.083 84.0773 17.3449 153 165 179 
207.839 83.7523 17.3448 154 166 178 
208.82 84.1843 17.3451 157 164 172 
207.702 83.2762 17.3448 124 134 146 
207.973 83.4073 17.3449 122 135 151 
208.499 83.8158 17.345 150 156 168 
207.511 83.5958 17.3448 151 167 182 
207.434 84.0094 17.3447 144 151 167 
208.145 84.5696 17.3442 154 161 177 
207.895 84.3759 17.3445 137 148 166 
208.598 84.3896 17.3447 159 166 174 
207.569 84.4377 17.3443 123 132 147 
211.487 83.1705 17.3443 172 178 190 
211.907 83.7934 17.3448 143 153 165 
212.11 84.0362 17.3449 163 170 178 
212.221 83.6113 17.3446 148 158 170 
211.678 83.5435 17.3446 150 160 172 
212.479 83.8293 17.3447 167 173 185 
211.885 83.2857 17.3444 160 170 180 
212.022 84.3554 17.3452 156 162 176 
212.722 83.642 17.3445 159 165 177 
207.253 83.3616 17.3444 160 168 181 
206.922 83.2828 17.3441 147 157 169 
206.665 82.9345 17.3437 138 146 159 
210.384 83.6101 17.345 132 142 152 
210.557 83.355 17.3447 154 161 169 
210.285 84.051 17.3453 160 170 182 
209.933 83.6651 17.3452 154 162 175 
209.538 83.6236 17.3454 138 148 158 
209.869 84.077 17.3455 159 166 176 
210.149 83.4025 17.345 125 135 144 
209.883 83.1581 17.3449 130 139 156 
209.959 84.3953 17.3457 145 154 163 
209.362 83.3003 17.3453 167 177 189 
210.81 83.5198 17.3447 149 159 171 
210.294 83.123 17.3447 155 161 173 
213.533 84.5107 17.3442 162 172 182 
213.691 83.0724 17.3442 157 163 175 
213.254 83.6386 17.3443 171 177 189 
213.575 83.9609 17.3442 131 141 153 
213.217 84.0958 17.3443 146 153 163 
213.553 83.3619 17.3442 144 154 164 
213.984 83.1435 17.3442 167 173 185 
213.803 83.5525 17.3442 160 167 175 
211.778 84.172 17.3449 139 145 161 
211.387 84.0916 17.3445 140 150 162 
211.482 83.7877 17.3446 136 146 158 
209.372 83.9558 17.3454 147 157 169 
209.171 83.6513 17.3452 129 138 153 
209.478 84.2647 17.3454 116 125 140 
205.283 84.0828 17.3443 153 163 175 
205.651 83.7733 17.3439 165 175 187 
205.731 84.0813 17.3438 155 165 177 
205.673 83.3125 17.3438 134 145 163 
205.225 83.4445 17.3443 157 169 181 
205.975 83.5862 17.3436 146 156 166 
205.272 83.7589 17.3442 154 163 178 
205.972 83.1517 17.3435 172 183 189 
204.977 83.8134 17.3445 134 140 154 
215.021 83.2745 17.3442 167 174 184 
215.402 83.3438 17.3441 146 156 168 
215.01 83.6794 17.3442 162 172 182 
214.709 83.2459 17.3442 157 165 176 
215.367 83.9673 17.3442 152 158 170 
214.603 82.9628 17.3441 152 158 172 
215.433 83.6625 17.3442 155 165 177 
215.687 83.2497 17.3441 142 148 160 
215.227 83.0257 17.3441 123 129 143 
215.809 83.7428 17.344 161 171 183 
216.163 83.4811 17.3439 171 177 189 
215.674 84.019 17.3441 148 158 168 
208.703 83.4907 17.3451 144 150 162 
208.337 83.4035 17.345 159 169 181 
208.871 83.8295 17.3451 150 160 169 
208.913 83.2537 17.3451 94 104 114 
203.265 83.7893 16.9282 149 153 162 
202.95 83.5451 17.2036 170 169 174 
232.084 83.4977 16.4512 123 130 140 
231.037 86.3835 15.9553 69 74 93 
231.241 86.2473 15.7516 83 89 101 
232.17 85.8455 16.3991 171 170 175 
232.494 85.6792 16.3904 172 173 177 
227.582 88.2511 12.6921 109 120 138 
232.993 85.5482 17.0132 184 175 178 
232.412 85.7648 16.7028 137 136 152 
231.792 85.9983 13.2172 55 55 63 
232.818 85.5312 16.4037 177 173 172 
232.098 83.6869 16.0235 108 121 130 
231.048 86.4688 9.96963 117 138 165 
231.459 86.3099 16.6984 155 158 165 
232.474 85.6903 13.2498 191 187 186 
232.152 85.8521 13.7121 189 188 186 
231.967 86.0016 14.7969 184 183 179 
231.747 86.0774 14.4815 187 183 182 
230.092 86.9818 11.1365 179 175 174 
231.942 83.4192 15.6941 110 124 137 
232.355 85.7511 12.9672 189 188 186 
232.292 85.7903 12.5327 188 184 181 
232.074 85.9142 12.9075 186 185 183 
232.082 85.8926 13.412 189 188 186 
231.79 83.1492 15.6645 137 147 156 
231.924 83.3935 15.3723 108 115 123 
228.946 87.5972 15.6669 190 188 189 
228.699 87.733 15.354 189 185 184 
228.337 87.9398 15.5694 189 185 182 
227.235 88.4127 12.8463 85 92 111 
205.807 88.1113 3.98965 188 187 192 
205.913 88.3062 3.75648 195 198 205 
232.656 85.5845 5.61916 186 185 181 
231.947 83.2254 7.06194 198 197 195 
232.144 83.5919 7.03123 204 203 201 
230.084 86.9701 3.99648 185 184 182 
232.998 85.1638 15.8289 215 211 208 
231.748 85.9769 12.3511 152 171 188 
232.105 85.8794 7.42871 186 185 180 
231.892 85.9956 7.24807 186 187 181 
231.921 85.978 7.64721 185 181 180 
230.948 86.4303 5.40985 52 64 88 
232.139 83.7204 12.8986 142 158 171 
232.116 83.6686 12.5816 150 164 177 
230.642 86.5808 2.47509 123 148 170 
231.021 86.4408 3.6026 144 162 186 
231.237 86.2664 3.46695 152 172 197 
231.911 85.9356 12.6094 132 140 153 
232.185 83.7587 3.45886 153 171 193 
232.416 85.7088 11.7744 196 189 183 
233.047 85.1807 16.8757 200 198 199 
231.82 83.1994 12.5624 137 152 157 
231.219 86.2253 3.09906 136 158 179 
231.284 86.2063 2.79011 132 154 178 
230.242 86.7828 6.2273 112 131 163 
230.5 86.7966 4.6954 98 87 91 
230.754 86.656 4.57961 73 67 69 
229.823 87.0973 6.31198 152 158 172 
230.027 86.9677 6.11618 128 153 183 
230.216 86.7968 5.64679 125 139 166 
229.802 87.1307 7.96322 186 182 181 
229.554 87.2625 7.78983 182 178 175 
230.864 86.5444 4.21191 186 186 186 
230.504 86.7351 4.21703 183 183 183 
204.587 85.8596 2.07367 177 178 182 
230.118 86.9351 3.67614 148 161 169 
227.507 88.2908 2.99925 130 148 168 
203.363 83.5914 5.97782 183 182 187 
232.593 84.4254 6.05663 196 192 189 
204.5 85.6935 13.9022 177 176 181 
204.434 85.578 13.6323 184 184 186 
204.49 85.6734 14.2506 183 182 187 
205.083 86.614 9.23246 104 140 166 
204.938 86.337 9.12908 82 101 133 
232.744 84.7073 14.9081 195 192 185 
232.005 85.9386 3.30063 177 178 172 
232.37 85.7387 13.8981 185 184 182 
227.747 88.2545 11.3842 182 178 175 
229.48 87.2897 3.47103 199 189 187 
229.929 87.0682 15.8119 72 71 77 
231.632 86.1972 4.69539 113 98 103 
232.077 85.9546 4.76003 104 90 103 
228.529 87.822 16.2272 179 178 176 
229.256 87.4257 8.58968 184 183 179 
229.354 87.3715 8.11239 189 185 184 
229.112 87.5026 8.23546 184 180 177 
232.626 85.6016 12.1459 188 184 181 
232.331 85.7691 12.2166 197 193 190 
232.448 85.6956 11.3387 192 186 188 
232.666 85.581 11.6048 186 182 179 
232.129 83.5842 13.1672 79 75 74 
232.586 84.3339 16.5651 199 195 194 
232.795 84.7566 16.4152 206 202 201 
232.722 85.5765 12.5109 190 186 183 
232.577 85.6329 12.7681 188 184 181 
231.863 85.9769 16.4454 36 34 45 
232.765 85.5286 9.5053 185 184 179 
227.873 88.1804 14.4836 183 185 182 
227.555 88.3468 14.4165 186 185 190 
227.835 88.1938 14.1545 185 185 183 
222.848 87.7788 17.344 156 166 176 
231.67 86.0048 16.0311 59 62 81 
231.258 86.3218 13.2809 62 64 76 
231.286 86.3299 14.6072 188 187 185 
231.444 86.3029 4.92342 112 97 102 
230.963 86.4032 5.89073 140 165 187 
232.606 85.6194 10.191 184 183 181 
232.204 85.8434 10.04 187 187 185 
231.525 86.1283 3.48665 134 153 168 
230.149 86.9394 14.0725 181 181 181 
230.374 86.8101 13.6357 185 184 182 
230.744 86.6269 5.26101 86 84 85 
232.276 85.7768 5.90988 186 182 183 
232.892 85.4617 7.94235 185 180 176 
230.459 86.7244 3.15844 138 155 173 
230.646 86.6151 2.9339 134 161 182 
232.112 83.4802 8.1967 199 191 188 
232.44 84.0847 2.13579 198 194 191 
232.846 84.89 15.8013 204 200 197 
232.542 84.324 11.2222 206 202 199 
227.351 88.3702 15.1059 53 61 84 
232.927 85.0394 12.1307 207 204 199 
232.28 85.7917 6.34556 190 186 187 
232.065 85.9097 6.83435 182 181 179 
231.847 86.0242 10.5285 187 187 187 
232.146 85.8618 10.6286 181 181 181 
228.905 87.6081 16.4013 176 175 180 
229.415 87.3414 11.6286 183 183 183 
229.67 87.1908 11.5253 178 178 178 
229.415 87.3426 11.3283 186 186 186 
232.135 85.883 8.26595 187 183 182 
232.595 85.629 9.81394 186 185 183 
232.931 85.4491 9.86207 169 165 164 
228.25 87.9698 5.48545 175 174 170 
227.266 88.3903 6.38822 43 72 106 
227.183 88.4338 6.07331 133 153 177 
203.637 84.2015 4.58104 73 66 73 
204.321 85.3706 12.1529 181 180 185 
203.163 83.092 12.1567 99 134 166 
